-0.25857377,1.0570401,9.849746,0,0,1
-0.2633622,1.055843,9.961076,0,0,1
-0.2765303,1.0378864,9.974244,0,0,1
-0.2633622,1.0307038,9.933543,0,0,1
-0.20350714,1.0067618,9.872491,0,0,1
-0.1604115,1.0163386,9.834184,0,0,1
-0.12569559,1.0702082,9.840169,0,0,1
-0.130484,1.0929531,9.799467,0,0,1
-0.15682021,1.0869676,9.762358,0,0,1
-0.15682021,1.0869676,9.762358,0,0,1
-0.19752164,1.0618285,9.713276,0,0,1
-0.30645782,1.0378864,9.734824,0,0,1
-0.30645782,1.0378864,9.734824,0,0,1
-0.3890578,1.0462662,9.80665,0,0,1
-0.4225766,1.043872,9.817424,0,0,1
-0.4225766,1.043872,9.817424,0,0,1
-0.37708676,1.0690111,9.78989,0,0,1
-0.34955344,1.0785879,9.818622,0,0,1
-0.3196259,1.067814,9.89763,0,0,1
-0.3196259,1.067814,9.89763,0,0,1
-0.2645593,1.0893618,9.91798,0,0,1
-0.1592144,1.1049241,9.933543,0,0,1
-0.08738836,1.1109096,9.985018,0,0,1
-0.010773907,1.1408371,9.920375,0,0,1
0.04189853,1.1599907,9.951499,0,0,1
0.04189853,1.1599907,9.951499,0,0,1
0.007182605,1.2066777,9.944317,0,0,1
-0.023942016,1.1971009,9.911995,0,0,1
-0.095768064,1.2018893,9.886856,0,0,1
-0.15203181,1.22224,9.85214,0,0,1
-0.17597382,1.2785037,9.792285,0,0,1
-0.17956513,1.3335704,9.837775,0,0,1
-0.11731588,1.3838485,9.850943,0,0,1
-0.08619126,1.3958195,9.849746,0,0,1
-0.05267244,1.448492,9.896433,0,0,1
-0.05267244,1.448492,9.896433,0,0,1
0.003591303,1.5310919,9.90601,0,0,1
0.029927522,1.6077064,9.88925,0,0,1
0.007182605,1.6986861,9.858126,0,0,1
-0.007182605,1.7848774,9.805453,0,0,1
-0.05746084,1.8806454,9.812635,0,0,1
-0.10414778,1.9620483,9.763555,0,0,1
-0.1436521,2.0949266,9.76116,0,0,1
-0.23463176,2.2278047,9.713276,0,0,1
-0.34476504,2.360683,9.634268,0,0,1
-0.46327803,2.4528596,9.600749,0,0,1
-0.59136784,2.5629928,9.611523,0,0,1
-0.6667852,2.681506,9.64145,0,0,1
-0.7386112,2.7724855,9.633071,0,0,1
-0.8415619,2.8802247,9.611523,0,0,1
-0.93852705,3.004723,9.690532,0,0,1
-0.9923966,3.1244333,9.8437605,0,0,1
-0.961272,3.2620997,9.975441,0,0,1
-0.8595184,3.3913867,10.141838,0,0,1
-0.70509243,3.558981,10.305841,0,0,1
-0.70509243,3.558981,10.305841,0,0,1
-0.35673606,3.9228995,11.051635,0,0,1
-0.35673606,3.9228995,11.051635,0,0,1
-0.22744916,4.156334,11.390414,0,0,1
-0.18076223,4.3263226,11.511322,0,0,1
-0.1604115,4.4999022,11.5616,0,0,1
-0.18914193,4.673482,11.457452,0,0,1
-0.19752164,4.8243165,11.209652,0,0,1
-0.24899697,4.9943047,10.794258,0,0,1
-0.34356794,5.1690817,10.277111,0,0,1
-0.4381389,5.3007627,9.696517,0,0,1
-0.49679685,5.445612,9.248801,0,0,1
-0.5638345,5.5401826,8.919599,0,0,1
-0.6799533,5.5820813,8.686164,0,0,1
-1.0390835,5.535394,8.495825,0,0,1
-1.4676456,5.4623713,8.352173,0,0,1
-1.6316484,5.400122,8.323442,0,0,1
-1.5179238,5.45878,8.573636,0,0,1
-1.2557588,5.571307,8.890868,0,0,1
-1.043872,5.6539073,9.161413,0,0,1
-0.93972415,5.6179943,9.375694,0,0,1
-0.8319851,5.565322,9.494206,0,0,1
-0.58418524,5.5988407,9.491813,0,0,1
-0.58418524,5.5988407,9.491813,0,0,1
-0.2885013,5.7161565,9.472659,0,0,1
0.01316811,5.7855883,9.491813,0,0,1
0.19393034,5.7484784,9.629479,0,0,1
0.19273324,5.6682725,9.835381,0,0,1
0.142455,5.509058,9.973047,0,0,1
0.06703765,5.3522377,10.120291,0,0,1
0.051475335,5.269638,10.207679,0,0,1
-0.035913024,5.246893,10.242394,0,0,1
-0.272939,5.1607018,10.126276,0,0,1
-0.6464345,5.043386,9.78989,0,0,1
-0.6464345,5.043386,9.78989,0,0,1
-1.0582372,4.8219223,9.417592,0,0,1
-1.4377182,4.594473,9.059659,0,0,1
-1.8052281,4.3957543,8.865729,0,0,1
-1.8052281,4.3957543,8.865729,0,0,1
-2.0745757,4.173094,8.728063,0,0,1
-2.3415294,3.8989575,8.655039,0,0,1
-2.918532,3.5458126,8.622718,0,0,1
-3.5422213,3.040636,8.552089,0,0,1
-3.751714,2.4540567,8.582016,0,0,1
-3.3997664,1.8782512,8.74123,0,0,1
-2.6479871,1.3000516,8.954314,0,0,1
-1.8183962,0.6847417,9.109938,0,0,1
-0.9696517,-0.001197101,9.275137,0,0,1
-0.15322891,-0.6440403,9.551667,0,0,1
0.59136784,-1.2162545,10.15381,0,0,1
1.0474633,-1.8100165,10.620679,0,0,1
1.1911154,-2.4744074,10.585963,0,0,1
1.1300632,-3.2094274,10.247183,0,0,1
0.82480246,-3.9827545,9.809045,0,0,1
0.33279404,-4.679467,9.333796,0,0,1
-0.35553896,-5.407305,8.950723,0,0,1
-1.1707647,-6.1662664,8.564059,0,0,1
-1.9931729,-6.9264255,8.355764,0,0,1
-2.610877,-7.631518,8.222886,0,0,1
-2.837129,-8.222886,8.213309,0,0,1
-2.837129,-8.222886,8.213309,0,0,1
-2.7593174,-8.762778,8.516175,0,0,1
-2.6443958,-9.257181,9.2308445,0,0,1
-2.5198972,-9.710882,10.181343,0,0,1
-2.3259668,-10.1226845,11.35929,0,0,1
-2.0039468,-10.398018,12.75511,0,0,1
-2.0039468,-10.398018,12.75511,0,0,1
-1.5969325,-10.522516,14.1186075,0,0,1
-1.0450691,-10.6158905,15.142129,0,0,1
-0.48243165,-10.699687,15.786169,0,0,1
-0.48243165,-10.699687,15.786169,0,0,1
-0.06584055,-10.703279,16.072275,0,0,1
0.21428105,-10.584765,15.9801,0,0,1
0.31244332,-10.3692875,15.444995,0,0,1
0.31244332,-10.3692875,15.444995,0,0,1
0.16280572,-10.084377,14.477737,0,0,1
-0.90141696,-9.448717,11.901577,0,0,1
-0.90141696,-9.448717,11.901577,0,0,1
-1.3862427,-9.054871,10.658986,0,0,1
-1.6567876,-8.663419,9.372103,0,0,1
-1.7944542,-8.24204,7.9726915,0,0,1
-1.8926164,-7.8446016,6.715736,0,0,1
-1.8926164,-7.8446016,6.715736,0,0,1
-1.9955671,-7.428011,5.8238955,0,0,1
-2.1667526,-6.956353,5.469554,0,0,1
-2.1667526,-6.956353,5.469554,0,0,1
-2.4145525,-6.5804634,5.687426,0,0,1
-2.645593,-6.281188,6.196194,0,0,1
-2.7126305,-6.06571,6.895301,0,0,1
-2.5797524,-5.807136,7.548918,0,0,1
-2.2062569,-5.4803276,8.226477,0,0,1
-1.8567034,-5.081693,8.765172,0,0,1
-1.7561469,-4.7620673,9.163807,0,0,1
-1.7106571,-4.5178585,9.472659,0,0,1
-1.7106571,-4.5178585,9.472659,0,0,1
-1.5466543,-4.334702,9.762358,0,0,1
-1.3335704,-4.086902,10.0987425,0,0,1
-0.90979666,-3.715801,10.34774,0,0,1
-0.2813187,-3.2513258,10.494983,0,0,1
0.2753332,-2.7736826,10.436325,0,0,1
0.59855044,-2.3068132,10.0269165,0,0,1
0.56982,-1.8962077,9.31105,0,0,1
0.30166942,-1.5179238,8.408437,0,0,1
-0.029927522,-1.1097125,7.6387005,0,0,1
-0.15083471,-0.60812724,7.249643,0,0,1
-0.15083471,-0.60812724,7.249643,0,0,1
-0.035913024,-0.01316811,7.103596,0,0,1
0.29688102,0.5351041,7.0569096,0,0,1
0.45729253,1.0522517,7.073669,0,0,1
0.108936176,1.4688427,6.9491706,0,0,1
-0.32561144,1.8782512,6.919243,0,0,1
-0.39264908,2.3199813,6.873753,0,0,1
-0.15801731,2.7748797,6.8881183,0,0,1
0.14963761,3.1064768,6.919243,0,0,1
0.14963761,3.1064768,6.919243,0,0,1
0.2633622,3.2716765,7.0605006,0,0,1
0.34596214,3.5075054,7.3190746,0,0,1
0.7098808,3.858256,7.60997,0,0,1
1.1180922,4.225766,7.703344,0,0,1
1.3742718,4.5358152,7.5453267,0,0,1
1.4676456,4.894945,7.345411,0,0,1
1.34195,5.306748,7.0485296,0,0,1
0.9983821,5.7855883,6.6989765,0,0,1
0.5398925,6.241684,6.5218053,0,0,1
0.088585466,6.6654577,6.591237,0,0,1
-0.31483752,7.0724716,7.029376,0,0,1
-0.7553706,7.3777328,7.679402,0,0,1
-1.5334862,7.5549035,8.407239,0,0,1
-2.4121583,7.69257,9.307459,0,0,1
-2.4121583,7.69257,9.307459,0,0,1
-2.9891608,7.8865004,10.492589,0,0,1
-3.169923,8.127118,11.906365,0,0,1
-3.1316159,8.4347725,13.178884,0,0,1
-2.825158,8.714894,13.883976,0,0,1
-2.2601264,8.9124155,14.222755,0,0,1
-1.6555905,9.057265,14.213179,0,0,1
-1.0773908,9.221268,14.065935,0,0,1
-0.5243302,9.372103,13.814544,0,0,1
-0.5243302,9.372103,13.814544,0,0,1
0.37229836,9.394848,13.393165,0,0,1
0.62009823,9.368511,13.344083,0,0,1
0.6943185,9.279925,13.492524,0,0,1
0.6512229,9.109938,13.788208,0,0,1
0.545878,8.91481,14.164097,0,0,1
0.5781997,8.724471,14.541184,0,0,1
0.6392518,8.542512,14.872781,0,0,1
0.5793968,8.317456,15.140931,0,0,1
0.33997664,8.069656,15.260642,0,0,1
0.033518825,7.811083,15.284584,0,0,1
-0.2789245,7.511808,15.008054,0,0,1
-0.5662287,7.1766195,14.573505,0,0,1
-0.91937345,6.841431,14.012066,0,0,1
-1.2509704,6.513426,13.486538,0,0,1
-1.5310919,6.220136,13.032837,0,0,1
-1.9596541,5.5270147,12.192472,0,0,1
-1.9596541,5.5270147,12.192472,0,0,1
-2.0410569,5.118803,11.57836,0,0,1
-1.9141643,4.747702,10.971429,0,0,1
-1.6208745,4.404134,10.454282,0,0,1
-1.22224,4.0653543,10.19451,0,0,1
-0.79367787,3.7780502,10.166978,0,0,1
-0.30166942,3.5434184,10.362105,0,0,1
0.18076223,3.25372,10.571598,0,0,1
0.60932434,2.9759927,10.579977,0,0,1
0.93373865,2.6515784,10.432734,0,0,1
0.93373865,2.6515784,10.432734,0,0,1
1.1085154,2.4145525,10.230424,0,0,1
1.1875241,2.1871033,10.000581,0,0,1
1.2078748,1.9656396,9.76116,0,0,1
1.2030864,1.697489,9.41879,0,0,1
1.2413936,1.3946224,9.050082,0,0,1
1.210269,1.0426749,8.641871,0,0,1
1.1109096,0.7493851,8.364143,0,0,1
0.92535895,0.5291186,8.236053,0,0,1
0.60693014,0.31124622,8.277952,0,0,1
0.05267244,0.035913024,8.37372,0,0,1
-0.6775591,-0.30885202,8.565256,0,0,1
-1.3108255,-0.61650693,9.006987,0,0,1
-1.483208,-0.82240826,9.630676,0,0,1
-1.283292,-0.91578215,10.333375,0,0,1
-0.90381116,-1.0378864,10.819398,0,0,1
-0.5422867,-1.1935096,10.800244,0,0,1
-0.19991584,-1.4173675,10.433931,0,0,1
0.11611878,-1.6496049,9.894038,0,0,1
0.34356794,-1.7824832,9.412804,0,0,1
0.35075054,-1.8698715,9.012972,0,0,1
0.35075054,-1.8698715,9.012972,0,0,1
0.15442601,-1.8914193,8.725668,0,0,1
-0.11372458,-1.9381063,8.534132,0,0,1
-0.3866636,-1.9979613,8.304289,0,0,1
-0.59974754,-2.0470424,8.104373,0,0,1
-0.7410054,-2.1021092,7.893683,0,0,1
-0.91697925,-2.1691468,7.8529816,0,0,1
-1.0235212,-2.2864625,7.9691005,0,0,1
-1.0809821,-2.3953989,8.291121,0,0,1
-1.0726024,-2.4732103,8.862138,0,0,1
-1.0342951,-2.5007436,9.637859,0,0,1
-1.0031705,-2.4995465,10.609905,0,0,1
-0.93732995,-2.4468741,11.361684,0,0,1
-0.8750807,-2.3451207,11.858481,0,0,1
-0.770933,-2.2122424,12.016499,0,0,1
-0.59017074,-2.0219033,11.921927,0,0,1
-0.41060558,-1.804031,11.473015,0,0,1
-0.41060558,-1.804031,11.473015,0,0,1
-0.20949265,-1.5693992,10.782288,0,0,1
-0.033518825,-1.353921,9.956287,0,0,1
0.16400282,-1.1085154,9.210494,0,0,1
0.31364042,-0.90021986,8.528147,0,0,1
0.31364042,-0.90021986,8.528147,0,0,1
0.4213795,-0.6631939,8.049306,0,0,1
0.39743748,-0.45370123,7.739257,0,0,1
0.30526072,-0.29328972,7.4687123,0,0,1
-0.108936176,-0.20350714,6.92044,0,0,1
-0.22505496,-0.16280572,7.21373,0,0,1
-0.031124622,-0.107739076,7.8757267,0,0,1
0.17597382,0.023942016,8.717288,0,0,1
0.19752164,0.142455,9.379285,0,0,1
0.05865794,0.18435353,9.840169,0,0,1
0.004788403,0.19512744,9.981427,0,0,1
0.022744916,0.22026655,10.010158,0,0,1
0.051475335,0.25857377,10.001778,0,0,1
0.08379706,0.32680854,10.005369,0,0,1
0.1316811,0.39624038,9.959879,0,0,1
0.15801731,0.44771573,9.799467,0,0,1
0.16759412,0.5386954,9.574412,0,0,1
0.17597382,0.5793968,9.271546,0,0,1
0.1364695,0.63087213,9.088389,0,0,1
0.08499416,0.6919243,8.974665,0,0,1
0.08499416,0.6919243,8.974665,0,0,1
0.01436521,0.7386112,8.968679,0,0,1
-0.11492168,0.7637503,9.027337,0,0,1
-0.22625206,0.7673417,9.093178,0,0,1
-0.33279404,0.82480246,9.205706,0,0,1
-0.34117374,0.89902276,9.382876,0,0,1
-0.33518824,0.9564836,9.52174,0,0,1
-0.320823,0.9911995,9.651027,0,0,1
-0.2861071,1.021127,9.763555,0,0,1
-0.2861071,1.021127,9.763555,0,0,1
-0.2765303,1.0714053,9.776723,0,0,1
-0.2789245,1.1145009,9.763555,0,0,1
-0.33877954,1.1971009,9.715671,0,0,1
-0.4141969,1.2473791,9.646238,0,0,1
-0.49799395,1.258153,9.566033,0,0,1
-0.5758055,1.2856863,9.489418,0,0,1
-0.5758055,1.2856863,9.489418,0,0,1
-0.6607997,1.3395559,9.39365,0,0,1
-0.6667852,1.3922282,9.306262,0,0,1
-0.6488287,1.4281414,9.313444,0,0,1
-0.61890113,1.4700398,9.391256,0,0,1
-0.6368576,1.4891934,9.537302,0,0,1
-0.7074866,1.4939818,9.753978,0,0,1
-0.736217,1.4748282,9.965864,0,0,1
-0.6775591,1.389834,10.0269165,0,0,1
-0.58538234,1.353921,10.038888,0,0,1
-0.49799395,1.328782,10.056845,0,0,1
-0.3854665,1.3443443,10.061633,0,0,1
-0.29927522,1.3838485,10.029311,0,0,1
-0.2753332,1.3934253,10.0341,0,0,1
-0.25617957,1.3838485,9.932345,0,0,1
-0.272939,1.3790601,9.829395,0,0,1
-0.31603462,1.365892,9.706094,0,0,1
-0.37229836,1.3694834,9.606734,0,0,1
-0.45609543,1.3802572,9.528923,0,0,1
-0.5482722,1.3814543,9.425972,0,0,1
-0.58657944,1.3874398,9.392453,0,0,1
-0.58897364,1.3670892,9.427169,0,0,1
-0.5650316,1.3323733,9.471462,0,0,1
-0.49919105,1.3371617,9.548077,0,0,1
-0.49919105,1.3371617,9.548077,0,0,1
-0.4369418,1.3275849,9.811439,0,0,1
-0.4369418,1.3275849,9.811439,0,0,1
-0.41060558,1.2940661,9.988609,0,0,1
-0.44651863,1.2665327,10.121488,0,0,1
-0.50996494,1.2258313,10.205285,0,0,1
-0.5327099,1.2078748,10.247183,0,0,1
-0.5327099,1.2078748,10.247183,0,0,1
-0.49200845,1.2126632,10.18254,0,0,1
-0.45968673,1.2066777,10.175357,0,0,1
-0.45968673,1.2066777,10.175357,0,0,1
-0.39983168,1.2258313,10.102334,0,0,1
-0.34476504,1.2497733,10.059238,0,0,1
-0.3184288,1.2425907,10.016143,0,0,1
-0.3878607,1.2653356,10.005369,0,0,1
-0.3878607,1.2653356,10.005369,0,0,1
-0.427365,1.2509704,9.922769,0,0,1
-0.45848963,1.2330139,9.8916445,0,0,1
-0.45848963,1.2330139,9.8916445,0,0,1
-0.45250413,1.2844892,9.841366,0,0,1
-0.4381389,1.3204023,9.67856,0,0,1
-0.39983168,1.3299791,9.512163,0,0,1
-0.34356794,1.3215994,9.356541,0,0,1
-0.30885202,1.2976574,9.240421,0,0,1
-0.22026655,1.2868834,9.223662,0,0,1
-0.12928689,1.2569559,9.281123,0,0,1
-0.06823475,1.2485762,9.391256,0,0,1
-0.045489833,1.2246342,9.55047,0,0,1
0.020350715,1.163582,9.951499,0,0,1
0.020350715,1.163582,9.951499,0,0,1
0.021547815,1.1324574,10.164583,0,0,1
-0.074220255,1.0893618,10.341754,0,0,1
-0.16759412,1.0666169,10.43034,0,0,1
-0.24181437,1.0749966,10.46745,0,0,1
-0.2693477,1.0714053,10.356119,0,0,1
-0.2693477,1.0714053,10.356119,0,0,1
-0.24660277,1.0905589,10.240001,0,0,1
-0.23463176,1.1312603,10.075998,0,0,1
-0.2669535,1.1552023,9.938332,0,0,1
-0.2813187,1.1851299,9.840169,0,0,1
-0.2813187,1.1851299,9.840169,0,0,1
-0.2705448,1.1887212,9.752781,0,0,1
-0.2669535,1.2354081,9.545682,0,0,1
-0.2669535,1.2354081,9.545682,0,0,1
-0.2669535,1.2354081,9.545682,0,0,1
-0.25139117,1.271321,9.416395,0,0,1
-0.25139117,1.271321,9.416395,0,0,1
-0.23343466,1.2677298,9.351752,0,0,1
-0.22625206,1.3000516,9.285912,0,0,1
-0.21787235,1.30484,9.266758,0,0,1
-0.20350714,1.2916719,9.305065,0,0,1
-0.20350714,1.3072342,9.405622,0,0,1
-0.17477672,1.2964603,9.469068,0,0,1
-0.16160862,1.2940661,9.574412,0,0,1
-0.1448492,1.2689269,9.635465,0,0,1
-0.15562311,1.2844892,9.720459,0,0,1
-0.22505496,1.3096284,9.773131,0,0,1
-0.22505496,1.3096284,9.773131,0,0,1
-0.22505496,1.3096284,9.773131,0,0,1
-0.2873042,1.2904748,9.799467,0,0,1
-0.35673606,1.2737153,9.758766,0,0,1
-0.4261679,1.2569559,9.726444,0,0,1
-0.51834464,1.2354081,9.698911,0,0,1
-0.60094464,1.2234371,9.714474,0,0,1
-0.60094464,1.2234371,9.714474,0,0,1
-0.6560113,1.2198458,9.727641,0,0,1
-0.6560113,1.2198458,9.727641,0,0,1
-0.5566519,1.2198458,9.68694,0,0,1
-0.4357447,1.22224,9.600749,0,0,1
-0.4357447,1.22224,9.600749,0,0,1
-0.29209262,1.2162545,9.516952,0,0,1
-0.14724341,1.1671734,9.533711,0,0,1
-0.14724341,1.1671734,9.533711,0,0,1
-0.14724341,1.1671734,9.533711,0,0,1
-0.12689269,1.1971009,9.503783,0,0,1
-0.14604631,1.2114661,9.489418,0,0,1
-0.16879122,1.2162545,9.527725,0,0,1
-0.29927522,1.2270284,9.692925,0,0,1
-0.3878607,1.2006922,9.753978,0,0,1
-0.4309563,1.1767502,9.775525,0,0,1
-0.45010993,1.1707647,9.775525,0,0,1
-0.439336,1.1671734,9.76116,0,0,1
-0.39983168,1.163582,9.7563715,0,0,1
-0.40462008,1.1779473,9.721656,0,0,1
-0.40462008,1.1779473,9.721656,0,0,1
-0.4189853,1.1815386,9.7324295,0,0,1
-0.4237737,1.1552023,9.743204,0,0,1
-0.4189853,1.1540052,9.7803135,0,0,1
-0.4189853,1.1540052,9.7803135,0,0,1
-0.51475334,1.1528081,9.901221,0,0,1
-0.65242,1.1719618,10.131064,0,0,1
-0.78290397,1.1959038,10.320207,0,0,1
-0.81283146,1.1947067,10.380061,0,0,1
-0.7206547,1.1504139,10.426748,0,0,1
-0.6440403,1.1480197,10.5680065,0,0,1
-0.6356605,1.1216835,10.545261,0,0,1
-0.2753332,1.0151415,10.376471,0,0,1
-0.2753332,1.0151415,10.376471,0,0,1
-0.2753332,1.0151415,10.376471,0,0,1
0.003591303,1.0749966,9.844957,0,0,1
0.62009823,1.1947067,7.973889,0,0,1
1.2916719,1.3563153,7.001843,0,0,1
1.4796166,1.5095441,7.428011,0,0,1
0.29807812,1.4987702,8.683769,0,0,1
-0.4285621,1.1360487,9.350554,0,0,1
-0.9744401,0.91338795,9.959879,0,0,1
-1.1875241,0.9768343,10.466252,0,0,1
-1.033098,1.0893618,10.850522,0,0,1
-0.6679823,1.0833763,11.004948,0,0,1
-0.6679823,1.0833763,11.004948,0,0,1
-0.5710171,1.0450691,11.064803,0,0,1
-0.48123455,1.009156,11.089942,0,0,1
-0.39983168,1.021127,11.048044,0,0,1
-0.34596214,1.0534488,10.929531,0,0,1
-0.32202014,1.0929531,10.722432,0,0,1
-0.19393034,1.1408371,10.441113,0,0,1
0.16639702,1.2401965,10.011354,0,0,1
0.40342298,1.2485762,9.5385,0,0,1
0.45130703,1.1444284,9.141062,0,0,1
0.4441244,1.0845734,8.75799,0,0,1
0.1316811,1.2761095,8.186973,0,0,1
0.1316811,1.2761095,8.186973,0,0,1
-0.10414778,1.4077905,8.1343,0,0,1
-0.31603462,1.4748282,8.307879,0,0,1
-0.50637364,1.4460979,8.819042,0,0,1
-0.6356605,1.3694834,9.443929,0,0,1
-0.2837129,1.435324,9.640253,0,0,1
-0.2621651,1.4413095,9.647436,0,0,1
-0.22984336,1.4628572,9.617508,0,0,1
-0.17836803,1.472434,9.615114,0,0,1
-0.1376666,1.4664485,9.570822,0,0,1
-0.094570965,1.496376,9.589975,0,0,1
-0.05267244,1.5095441,9.539697,0,0,1
-0.009576807,1.4820108,9.576807,0,0,1
-0.044292733,1.459266,9.5971575,0,0,1
-0.077811554,1.4221559,9.636662,0,0,1
-0.1448492,1.423353,9.64983,0,0,1
-0.22505496,1.4149733,9.629479,0,0,1
-0.29927522,1.4137762,9.5971575,0,0,1
-0.30166942,1.4173675,9.604341,0,0,1
-0.28491,1.4161704,9.613917,0,0,1
-0.23223756,1.388637,9.676167,0,0,1
-0.18315643,1.388637,9.728839,0,0,1
-0.19632454,1.401805,9.745598,0,0,1
-0.20111294,1.3970166,9.755175,0,0,1
-0.18195933,1.3838485,9.751583,0,0,1
-0.15442601,1.3970166,9.706094,0,0,1
-0.16400282,1.3994108,9.67018,0,0,1
-0.16519992,1.3742718,9.627085,0,0,1
-0.1436521,1.3694834,9.582792,0,0,1
-0.11971009,1.4209588,9.609129,0,0,1
-0.1436521,1.4161704,9.733627,0,0,1
-0.17956513,1.4173675,9.813833,0,0,1
-0.22505496,1.3982137,9.876082,0,0,1
-0.2789245,1.3718776,9.848549,0,0,1
-0.31244332,1.3634979,9.750386,0,0,1
-0.28491,1.3814543,9.625888,0,0,1
-0.21308395,1.389834,9.510966,0,0,1
-0.1328782,1.412579,9.457097,0,0,1
-0.076614454,1.4317327,9.41879,0,0,1
-0.055066638,1.4269443,9.441534,0,0,1
-0.05626374,1.4197617,9.451111,0,0,1
-0.11133038,1.412579,9.502586,0,0,1
-0.16998832,1.3946224,9.531317,0,0,1
-0.19871874,1.3838485,9.640253,0,0,1
-0.19273324,1.3623008,9.733627,0,0,1
-0.18794483,1.3790601,9.799467,0,0,1
-0.20709845,1.3694834,9.838972,0,0,1
-0.18674773,1.377863,9.834184,0,0,1
-0.16639702,1.3694834,9.773131,0,0,1
-0.15562311,1.3802572,9.763555,0,0,1
-0.1436521,1.3670892,9.7719345,0,0,1
-0.1364695,1.3611037,9.775525,0,0,1
-0.142455,1.3706805,9.742006,0,0,1
-0.142455,1.3802572,9.679757,0,0,1
-0.16998832,1.3934253,9.618706,0,0,1
-0.21068975,1.401805,9.642648,0,0,1
-0.21787235,1.388637,9.634268,0,0,1
-0.20470424,1.4173675,9.618706,0,0,1
-0.18435353,1.4089876,9.554062,0,0,1
-0.16400282,1.4161704,9.568427,0,0,1
-0.17836803,1.436521,9.522937,0,0,1
-0.21547815,1.4305356,9.51336,0,0,1
-0.22864626,1.4460979,9.539697,0,0,1
-0.24779987,1.4161704,9.578004,0,0,1
-0.23104046,1.4221559,9.613917,0,0,1
-0.20231004,1.4293385,9.7240505,0,0,1
-0.18914193,1.388637,9.767146,0,0,1
-0.17717093,1.401805,9.809045,0,0,1
-0.16160862,1.3982137,9.758766,0,0,1
-0.18435353,1.377863,9.682152,0,0,1
-0.25498247,1.3718776,9.645041,0,0,1
-0.30765492,1.3814543,9.66659,0,0,1
-0.34117374,1.3958195,9.730036,0,0,1
-0.34715924,1.376666,9.765948,0,0,1
-0.30645782,1.3742718,9.775525,0,0,1
-0.25258827,1.3790601,9.774328,0,0,1
-0.18794483,1.389834,9.691729,0,0,1
-0.1352724,1.3850456,9.643845,0,0,1
-0.10175357,1.3934253,9.621099,0,0,1
-0.10654198,1.401805,9.544485,0,0,1
-0.1352724,1.4030021,9.478644,0,0,1
-0.18435353,1.4149733,9.421184,0,0,1
-0.18435353,1.4149733,9.421184,0,0,1
-0.19512744,1.4197617,9.436746,0,0,1
-0.23343466,1.4185646,9.53012,0,0,1
-0.22385786,1.4329298,9.631873,0,0,1
-0.22146365,1.412579,9.762358,0,0,1
-0.19033903,1.400608,9.7803135,0,0,1
-0.15682021,1.4185646,9.744401,0,0,1
-0.088585466,1.3922282,9.7084875,0,0,1
-0.05746084,1.3982137,9.703699,0,0,1
-0.023942016,1.3790601,9.664195,0,0,1
0.01436521,1.3694834,9.694122,0,0,1
0.01436521,1.3694834,9.694122,0,0,1
0.017956512,1.352724,9.749189,0,0,1
-0.038307227,1.3599066,9.77792,0,0,1
-0.1352724,1.3874398,9.825804,0,0,1
-0.24181437,1.3802572,9.822212,0,0,1
-0.2896984,1.3575124,9.816227,0,0,1
-0.33039984,1.3587095,9.758766,0,0,1
-0.2896984,1.3503298,9.676167,0,0,1
-0.25378537,1.3718776,9.631873,0,0,1
-0.18315643,1.3862427,9.587581,0,0,1
-0.08738836,1.411382,9.532514,0,0,1
-0.08738836,1.411382,9.532514,0,0,1
-0.059855044,1.3874398,9.515755,0,0,1
-0.059855044,1.3874398,9.515755,0,0,1
-0.12928689,1.3802572,9.562442,0,0,1
-0.16280572,1.364695,9.659407,0,0,1
-0.16280572,1.364695,9.659407,0,0,1
-0.17956513,1.3862427,9.7240505,0,0,1
-0.19871874,1.3994108,9.779117,0,0,1
-0.18674773,1.4089876,9.846154,0,0,1
-0.17717093,1.3970166,9.846154,0,0,1
-0.17717093,1.3970166,9.846154,0,0,1
-0.17118542,1.3994108,9.78989,0,0,1
-0.16998832,1.3934253,9.701305,0,0,1
-0.16998832,1.3934253,9.701305,0,0,1
-0.14844051,1.401805,9.651027,0,0,1
-0.11851298,1.42455,9.527725,0,0,1
-0.11851298,1.42455,9.527725,0,0,1
-0.047884032,1.4784195,9.487024,0,0,1
-0.047884032,1.4784195,9.487024,0,0,1
-0.09816227,1.4616601,9.488221,0,0,1
-0.11133038,1.4413095,9.503783,0,0,1
-0.1328782,1.411382,9.533711,0,0,1
-0.1364695,1.423353,9.587581,0,0,1
-0.15083471,1.3922282,9.613917,0,0,1
-0.17238252,1.3934253,9.64145,0,0,1
-0.17238252,1.3934253,9.64145,0,0,1
-0.18195933,1.4101849,9.691729,0,0,1
-0.19752164,1.3922282,9.737218,0,0,1
-0.18914193,1.3802572,9.803059,0,0,1
-0.20231004,1.376666,9.770737,0,0,1
-0.20231004,1.376666,9.770737,0,0,1
-0.17956513,1.3611037,9.726444,0,0,1
-0.17956513,1.3910311,9.682152,0,0,1
-0.17238252,1.4030021,9.668983,0,0,1
-0.16160862,1.4209588,9.652225,0,0,1
-0.1604115,1.3946224,9.654618,0,0,1
-0.16639702,1.3994108,9.672575,0,0,1
-0.15442601,1.3958195,9.646238,0,0,1
-0.16519992,1.3946224,9.595961,0,0,1
-0.15083471,1.3874398,9.55047,0,0,1
-0.15083471,1.3922282,9.526528,0,0,1
-0.12330139,1.3934253,9.483433,0,0,1
-0.11133038,1.3922282,9.476251,0,0,1
-0.11133038,1.3922282,9.476251,0,0,1
-0.10414778,1.3850456,9.495404,0,0,1
-0.108936176,1.3742718,9.516952,0,0,1
-0.1388637,1.3718776,9.532514,0,0,1
-0.12689269,1.3587095,9.594764,0,0,1
-0.11971009,1.3742718,9.676167,0,0,1
-0.11372458,1.4041992,9.680955,0,0,1
-0.108936176,1.4077905,9.751583,0,0,1
-0.12210429,1.400608,9.79827,0,0,1
-0.12210429,1.400608,9.79827,0,0,1
-0.12449849,1.4101849,9.78989,0,0,1
-0.1448492,1.42455,9.791088,0,0,1
-0.130484,1.4628572,9.721656,0,0,1
-0.090979666,1.5059528,9.65821,0,0,1
-0.015562311,1.555034,9.595961,0,0,1
0.02873042,1.6077064,9.593566,0,0,1
0.09696517,1.7381904,9.568427,0,0,1
0.16639702,1.8363527,9.459491,0,0,1
0.15801731,2.0087352,9.457097,0,0,1
0.15322891,2.1787236,9.55885,0,0,1
0.050278235,2.31639,9.673772,0,0,1
-0.059855044,2.4612393,9.77792,0,0,1
-0.15322891,2.5929205,9.878476,0,0,1
-0.2789245,2.7234044,9.973047,0,0,1
-0.2789245,2.7234044,9.973047,0,0,1
-0.4237737,2.8742392,10.03769,0,0,1
-0.51834464,3.0550013,10.0903635,0,0,1
-0.50757074,3.2489316,10.108319,0,0,1
-0.40222588,3.441665,10.135853,0,0,1
-0.37588966,3.6224272,10.187328,0,0,1
-0.4285621,3.834314,10.214862,0,0,1
-0.3842694,4.1024647,10.365696,0,0,1
-0.30047232,4.3634324,10.517728,0,0,1
-0.17836803,4.638766,10.539276,0,0,1
-0.17597382,4.947618,10.692505,0,0,1
0.009576807,5.4085016,10.888829,0,0,1
0.439336,5.8502316,10.988189,0,0,1
0.770933,6.2105594,11.124659,0,0,1
0.7206547,6.540959,11.148601,0,0,1
0.7206547,6.540959,11.148601,0,0,1
0.7026982,7.088034,10.767922,0,0,1
0.39025488,7.144298,10.353725,0,0,1
-0.05267244,7.1945763,9.835381,0,0,1
-0.05267244,7.1945763,9.835381,0,0,1
-0.47405192,7.2125325,9.357738,0,0,1
-0.93493575,7.219715,8.811859,0,0,1
-1.2940661,7.231686,8.274361,0,0,1
-1.6627731,7.2209125,7.892486,0,0,1
-1.8507179,7.204153,7.57286,0,0,1
-1.8507179,7.204153,7.57286,0,0,1
-1.8555063,7.1586633,7.393295,0,0,1
-1.9800048,7.0724716,7.3071036,0,0,1
-2.2816741,6.9024835,7.5848308,0,0,1
-2.2816741,6.9024835,7.5848308,0,0,1
-2.7365725,6.540959,9.217676,0,0,1
-2.7365725,6.540959,9.217676,0,0,1
-2.883816,6.2524576,10.289082,0,0,1
-2.7928362,5.913678,11.171345,0,0,1
-2.7928362,5.913678,11.171345,0,0,1
-2.409764,5.683835,11.859678,0,0,1
-1.7848774,5.565322,12.304999,0,0,1
-1.0235212,5.5282116,12.460623,0,0,1
-0.3196259,5.461174,12.39957,0,0,1
-0.3196259,5.461174,12.39957,0,0,1
0.22026655,5.3474493,12.125435,0,0,1
0.5398925,5.1523223,11.688493,0,0,1
0.60573304,4.9176903,11.21085,0,0,1
0.61530983,4.642357,10.82658,0,0,1
0.61530983,4.642357,10.82658,0,0,1
0.62009823,4.3179426,10.338163,0,0,1
0.6548142,3.9743748,9.952697,0,0,1
0.6548142,3.9743748,9.952697,0,0,1
0.7146692,3.6116533,9.646238,0,0,1
0.8331822,3.276465,9.19972,0,0,1
0.8331822,3.276465,9.19972,0,0,1
0.9636662,2.813187,8.802282,0,0,1
1.0031705,2.315193,8.456321,0,0,1
0.8439561,1.6579847,8.081628,0,0,1
0.49200845,0.8702923,7.7919292,0,0,1
-0.7457938,-0.6739678,7.5345526,0,0,1
-0.7457938,-0.6739678,7.5345526,0,0,1
-1.7776948,-1.4149733,7.727286,0,0,1
-3.084929,-2.1667526,8.1079645,0,0,1
-3.084929,-2.1667526,8.1079645,0,0,1
-4.2305546,-2.930503,8.524555,0,0,1
-4.7788267,-3.821146,8.911219,0,0,1
-4.763264,-4.7788267,9.046491,0,0,1
-4.2425256,-5.708974,9.03452,0,0,1
-3.3686419,-6.4787097,9.054871,0,0,1
-2.384625,-7.061698,9.297882,0,0,1
-2.384625,-7.061698,9.297882,0,0,1
-1.3970166,-7.5082164,9.911995,0,0,1
-0.4285621,-8.037335,10.680533,0,0,1
0.4189853,-8.631097,11.346122,0,0,1
1.0618285,-9.179369,11.791444,0,0,1
1.4700398,-9.643845,12.004527,0,0,1
1.6579847,-9.959879,12.070368,0,0,1
1.6579847,-9.959879,12.070368,0,0,1
1.6101006,-10.158598,12.00333,0,0,1
1.3299791,-10.292673,11.84651,0,0,1
0.8379706,-10.399215,11.577163,0,0,1
0.2861071,-10.493786,11.274296,0,0,1
-0.11372458,-10.629059,11.060015,0,0,1
-0.18794483,-10.767922,10.96305,0,0,1
-0.005985504,-10.880449,10.890026,0,0,1
0.37708676,-10.931925,10.736797,0,0,1
0.7517793,-10.896012,10.521319,0,0,1
1.0271125,-10.643424,10.243592,0,0,1
1.1683705,-10.225636,9.994595,0,0,1
1.0785879,-9.753978,9.758766,0,0,1
0.8583213,-9.374496,9.354146,0,0,1
0.5231331,-9.083601,8.750807,0,0,1
0.5231331,-9.083601,8.750807,0,0,1
0.05865794,-8.890868,8.118738,0,0,1
-0.49679685,-8.710106,7.627927,0,0,1
-1.1168951,-8.491036,7.3166804,0,0,1
-1.5777789,-8.202535,7.123947,0,0,1
-1.5777789,-8.202535,7.123947,0,0,1
-1.816002,-7.839813,7.15986,0,0,1
-1.8650831,-7.3909006,7.4387846,0,0,1
-1.8650831,-7.3909006,7.4387846,0,0,1
-1.7860745,-6.8905125,7.8733325,0,0,1
-1.6256629,-6.3326635,8.4108305,0,0,1
-1.2354081,-5.7987566,8.890868,0,0,1
-0.63206923,-5.3378725,9.271546,0,0,1
-0.05626374,-4.9823337,9.481039,0,0,1
0.1400608,-4.6938324,9.533711,0,0,1
-0.027533319,-4.3418846,9.448717,0,0,1
-0.22984336,-3.9336734,9.491813,0,0,1
-0.2765303,-3.441665,9.490616,0,0,1
-0.20590134,-2.895787,9.416395,0,0,1
-0.093373865,-2.3223755,9.312247,0,0,1
0.09816227,-1.7501614,9.036914,0,0,1
0.17717093,-1.258153,8.603564,0,0,1
0.22984336,-0.79248077,8.128315,0,0,1
0.28491,-0.25019407,7.6171527,0,0,1
0.3866636,0.37708676,7.049727,0,0,1
0.39983168,1.0187328,6.5481415,0,0,1
0.29328972,1.6472107,6.2141504,0,0,1
0.11492168,2.360683,6.1219735,0,0,1
0.015562311,3.0777464,6.125565,0,0,1
-0.09935937,3.714604,6.2045736,0,0,1
-0.22625206,4.237737,6.4416,0,0,1
-0.2789245,4.679467,6.8438253,0,0,1
-0.2633622,5.1200004,7.381324,0,0,1
-0.2717419,5.5605335,7.813477,0,0,1
-0.16879122,6.003461,8.160637,0,0,1
0.049081136,6.4164605,8.37372,0,0,1
0.29568392,6.7684083,8.461109,0,0,1
0.533907,6.9958572,8.39048,0,0,1
0.6931214,7.201759,8.27077,0,0,1
0.6931214,7.201759,8.27077,0,0,1
0.760159,7.3885064,8.147469,0,0,1
0.7733272,7.6985555,7.997831,0,0,1
0.48961425,8.055291,7.8733325,0,0,1
-0.12449849,8.421604,8.081628,0,0,1
-1.328782,8.961497,9.615114,0,0,1
-1.9536686,9.072827,10.808623,0,0,1
-2.4779987,9.136273,12.067974,0,0,1
-2.7389667,9.208099,13.596671,0,0,1
-2.789245,9.299079,15.004462,0,0,1
-2.6922798,9.442732,16.043545,0,0,1
-2.6922798,9.442732,16.043545,0,0,1
-2.2637177,9.811439,17.140089,0,0,1
-2.2637177,9.811439,17.140089,0,0,1
-1.9249382,10.0269165,17.33043,0,0,1
-1.6053122,10.225636,17.253815,0,0,1
-1.3359646,10.3932295,16.934189,0,0,1
-1.0821792,10.500969,16.369158,0,0,1
-0.8655039,10.594342,15.838841,0,0,1
-0.7433996,10.584765,15.35641,0,0,1
-0.6631939,10.460267,14.9625635,0,0,1
-0.62847793,10.195708,14.602236,0,0,1
-0.59735334,9.854534,14.356831,0,0,1
-0.58538234,9.488221,14.164097,0,0,1
-0.61291564,9.120711,14.149732,0,0,1
-0.59974754,8.704121,14.1629,0,0,1
-0.59974754,8.704121,14.1629,0,0,1
-0.58657944,8.196549,14.220361,0,0,1
-0.78888947,7.5848308,14.186842,0,0,1
-1.1312603,6.968324,13.9833355,0,0,1
-1.4796166,6.4631476,13.6649065,0,0,1
-1.7238252,6.009446,13.347674,0,0,1
-1.827973,5.5988407,13.044808,0,0,1
-1.827973,5.5988407,13.044808,0,0,1
-1.6807296,5.199009,12.771869,0,0,1
-1.2605472,4.8279076,12.609063,0,0,1
-1.2605472,4.8279076,12.609063,0,0,1
-0.6775591,4.453215,12.476185,0,0,1
-0.044292733,4.0785227,12.287044,0,0,1
0.5279215,3.7433343,11.951855,0,0,1
0.997185,3.4225113,11.518504,0,0,1
1.3084313,3.169923,10.986992,0,0,1
1.5514427,2.919729,10.390836,0,0,1
1.7010803,2.6791117,9.706094,0,0,1
1.7465701,2.397793,9.081207,0,0,1
1.6567876,2.0973208,8.593987,0,0,1
1.5490485,1.7872716,8.1797905,0,0,1
1.4305356,1.508347,7.8493905,0,0,1
1.2904748,1.2018893,7.4854717,0,0,1
1.1432313,0.8475474,7.15986,0,0,1
1.0809821,0.47884035,6.8198833,0,0,1
0.9564836,0.07182605,6.5565214,0,0,1
0.7529764,-0.34237084,6.4308257,0,0,1
0.7529764,-0.34237084,6.4308257,0,0,1
0.47405192,-0.7410054,6.659472,0,0,1
0.12569559,-1.163582,7.1826053,0,0,1
-0.4417302,-1.6017209,7.868544,0,0,1
-1.1121067,-2.1033063,8.726865,0,0,1
-1.1121067,-2.1033063,8.726865,0,0,1
-1.7681179,-2.542642,9.696517,0,0,1
-2.2002714,-2.9364884,10.83496,0,0,1
-2.2864625,-3.3087866,11.917139,0,0,1
-2.1440077,-3.6415808,12.696451,0,0,1
-1.7848774,-3.9360676,12.864046,0,0,1
-1.3024458,-4.176685,12.406754,0,0,1
-0.7769185,-4.3299136,11.520899,0,0,1
-0.2837129,-4.3514614,10.488997,0,0,1
-0.029927522,-4.286818,9.48463,0,0,1
0.02873042,-4.187459,8.717288,0,0,1
0.02873042,-4.187459,8.717288,0,0,1
-0.2825158,-4.0857053,7.8757267,0,0,1
-0.46208093,-4.1252093,7.7703815,0,0,1
-0.6344634,-4.11683,7.789535,0,0,1
-0.8451532,-4.047398,7.9870567,0,0,1
-0.93852705,-3.870227,8.450335,0,0,1
-0.91697925,-3.657143,8.991425,0,0,1
-0.7625532,-3.454833,9.48463,0,0,1
-0.50757074,-3.2561142,9.908403,0,0,1
-0.29209262,-3.0478187,10.272323,0,0,1
-0.1364695,-2.7940333,10.522516,0,0,1
-0.016759412,-2.4791958,10.759542,0,0,1
0.076614454,-2.1164744,10.860099,0,0,1
0.16639702,-1.7549498,10.733206,0,0,1
0.23104046,-1.436521,10.480618,0,0,1
0.29688102,-1.1492168,10.0748005,0,0,1
0.37229836,-0.8774749,9.518148,0,0,1
0.4189853,-0.60333884,9.003395,0,0,1
0.4189853,-0.60333884,9.003395,0,0,1
0.4429273,-0.34715924,8.4587145,0,0,1
0.439336,-0.11971009,7.991845,0,0,1
0.4441244,0.06344634,7.681796,0,0,1
0.45250413,0.22864626,7.515399,0,0,1
0.44532153,0.38307226,7.465121,0,0,1
0.48243165,0.51714754,7.6267295,0,0,1
0.48722005,0.60812724,7.8865004,0,0,1
0.439336,0.6847417,8.143877,0,0,1
0.36631286,0.7230489,8.420407,0,0,1
0.29328972,0.7457938,8.639477,0,0,1
0.19033903,0.7697359,8.858546,0,0,1
0.08379706,0.8283938,9.066842,0,0,1
0.033518825,0.8714894,9.360131,0,0,1
-0.01436521,0.92296475,9.561244,0,0,1
-0.01436521,0.92296475,9.561244,0,0,1
-0.088585466,0.9684546,9.667787,0,0,1
-0.16519992,1.0259154,9.76116,0,0,1
-0.22864626,1.0726024,9.773131,0,0,1
-0.22385786,1.1420342,9.755175,0,0,1
-0.17118542,1.2138603,9.683349,0,0,1
-0.16160862,1.2521675,9.524135,0,0,1
-0.19752164,1.292869,9.43914,0,0,1
-0.24061728,1.3790601,9.424775,0,0,1
-0.24181437,1.460463,9.385271,0,0,1
-0.3172317,1.4628572,9.297882,0,0,1
-0.37588966,1.4544775,9.192537,0,0,1
-0.40940848,1.4544775,9.166202,0,0,1
-0.50278234,1.4449008,9.138668,0,0,1
-0.6907272,1.4748282,9.126697,0,0,1
-0.6907272,1.4748282,9.126697,0,0,1
-0.82360536,1.5011644,9.15423,0,0,1
-0.89423436,1.4748282,9.269152,0,0,1
-0.8870517,1.4329298,9.459491,0,0,1
-0.81043726,1.389834,9.625888,0,0,1
-0.6452374,1.3682863,9.817424,0,0,1
-0.45968673,1.3838485,10.01734,0,0,1
-0.45968673,1.3838485,10.01734,0,0,1
-0.3172317,1.389834,10.177752,0,0,1
-0.21068975,1.4053963,10.259154,0,0,1
-0.19752164,1.3850456,10.31901,0,0,1
-0.23223756,1.3515269,10.341754,0,0,1
-0.30765492,1.3383588,10.336966,0,0,1
-0.39384618,1.3467385,10.303447,0,0,1
-0.48123455,1.3958195,10.236409,0,0,1
-0.5770026,1.3910311,10.16578,0,0,1
-0.6548142,1.3599066,10.070012,0,0,1
-0.700304,1.3563153,9.982624,0,0,1
-0.6751649,1.3790601,9.976639,0,0,1
-0.6452374,1.4030021,10.012551,0,0,1
-0.60693014,1.4580688,10.068815,0,0,1
-0.59735334,1.4772224,10.170568,0,0,1
-0.5805939,1.4772224,10.213664,0,0,1
-0.5626374,1.4413095,10.255563,0,0,1
-0.5626374,1.4413095,10.255563,0,0,1
-0.5386954,1.4137762,10.243592,0,0,1
-0.46806642,1.42455,10.326192,0,0,1
-0.33279404,1.4676456,10.299856,0,0,1
-0.33279404,1.4676456,10.299856,0,0,1
-0.30526072,1.4903905,10.213664,0,0,1
-0.25378537,1.4939818,10.109517,0,0,1
-0.22505496,1.4808137,10.022128,0,0,1
-0.22505496,1.4808137,10.022128,0,0,1
-0.20350714,1.4748282,9.916783,0,0,1
-0.22266077,1.4784195,9.858126,0,0,1
-0.20949265,1.459266,9.807847,0,0,1
-0.25139117,1.4544775,9.877279,0,0,1
-0.34596214,1.4532804,9.916783,0,0,1
-0.48961425,1.459266,9.995792,0,0,1
-0.6631939,1.4508862,10.041282,0,0,1
-0.81642276,1.4377182,10.085575,0,0,1
-0.8738836,1.4030021,10.0903635,0,0,1
-0.8738836,1.4030021,10.0903635,0,0,1
-0.8295909,1.3694834,10.06283,0,0,1
-0.688333,1.3623008,9.989806,0,0,1
-0.48123455,1.3371617,9.883265,0,0,1
-0.33399114,1.3515269,9.800665,0,0,1
-0.18674773,1.3227965,9.828198,0,0,1
-0.08738836,1.2761095,9.871294,0,0,1
-0.044292733,1.2198458,9.910798,0,0,1
-0.075417355,1.1611878,9.920375,0,0,1
-0.075417355,1.1611878,9.920375,0,0,1
-0.12689269,1.13964,9.933543,0,0,1
-0.14724341,1.1408371,9.909601,0,0,1
-0.14724341,1.1408371,9.909601,0,0,1
-0.18794483,1.1611878,9.8916445,0,0,1
-0.23702596,1.1611878,9.900024,0,0,1
-0.2801216,1.1336545,9.886856,0,0,1
-0.2801216,1.127669,9.862914,0,0,1
-0.2801216,1.127669,9.862914,0,0,1
-0.22864626,1.1133038,9.785102,0,0,1
-0.12449849,1.1264719,9.680955,0,0,1
-0.05865794,1.127669,9.57561,0,0,1
-0.008379706,1.174356,9.506178,0,0,1
-0.05865794,1.1935096,9.465476,0,0,1
-0.09696517,1.210269,9.403227,0,0,1
-0.1436521,1.2378023,9.376891,0,0,1
-0.17956513,1.2473791,9.391256,0,0,1
-0.18076223,1.2904748,9.433155,0,0,1
-0.18076223,1.2964603,9.457097,0,0,1
-0.18076223,1.2964603,9.457097,0,0,1
-0.21906945,1.3060371,9.52174,0,0,1
-0.23702596,1.3132197,9.533711,0,0,1
-0.21667525,1.34195,9.604341,0,0,1
-0.260968,1.3670892,9.642648,0,0,1
-0.29688102,1.3790601,9.716867,0,0,1
-0.4177882,1.4077905,10.007763,0,0,1
-0.5267244,1.4269443,10.314221,0,0,1
-0.5638345,1.4329298,10.383653,0,0,1
-0.62847793,1.3335704,10.383653,0,0,1
-0.6488287,1.2844892,10.308235,0,0,1
-0.49559975,1.364695,10.242394,0,0,1
-0.260968,1.4580688,10.105926,0,0,1
-0.18674773,1.4688427,9.646238,0,0,1
0.1328782,1.4520833,8.542512,0,0,1
0.6332663,1.5502456,7.597999,0,0,1
0.92895025,1.6927006,7.514202,0,0,1
0.81522566,1.7932571,7.8637557,0,0,1
0.2885013,1.7178397,8.328231,0,0,1
-0.320823,1.5155296,8.7053175,0,0,1
-0.6631939,1.3730747,8.913613,0,0,1
-0.8439561,1.389834,9.185355,0,0,1
-0.90141696,1.4736311,9.446322,0,0,1
-0.82121116,1.5215151,9.623494,0,0,1
-0.6727707,1.4951789,9.811439,0,0,1
-0.48841715,1.4389153,10.019734,0,0,1
-0.38067806,1.3551182,10.13705,0,0,1
-0.2693477,1.3132197,10.214862,0,0,1
-0.19991584,1.328782,10.287885,0,0,1
-0.12330139,1.3575124,10.38485,0,0,1
0.094570965,1.3994108,10.414778,0,0,1
0.2908955,1.4293385,10.3692875,0,0,1
0.29927522,1.3934253,10.268731,0,0,1
0.25378537,1.3611037,9.957485,0,0,1
0.11731588,1.3431472,9.618706,0,0,1
-0.025139118,1.4329298,9.284714,0,0,1
-0.18315643,1.5298948,8.981848,0,0,1
-0.38307226,1.5741876,8.789114,0,0,1
-0.48243165,1.5837644,8.775947,0,0,1
-0.557849,1.5861586,8.961497,0,0,1
-0.6356605,1.5574282,9.246407,0,0,1
-0.6548142,1.5394717,9.615114,0,0,1
-0.6512229,1.5119383,9.915586,0,0,1
-0.06464344,1.6160861,9.2787285,0,0,1
-0.06584055,1.6304513,9.244013,0,0,1
-0.05865794,1.6053122,9.36492,0,0,1
-0.1316811,1.567005,9.566033,0,0,1
-0.23343466,1.5406688,9.7563715,0,0,1
-0.31004912,1.5107412,9.915586,0,0,1
-0.3172317,1.4879963,10.016143,0,0,1
-0.3172317,1.5155296,10.022128,0,0,1
-0.2681506,1.5239093,10.014946,0,0,1
-0.21906945,1.543063,9.937134,0,0,1
-0.18435353,1.553837,9.825804,0,0,1
-0.17118542,1.5514427,9.749189,0,0,1
-0.22385786,1.578976,9.713276,0,0,1
-0.25737667,1.5921441,9.781511,0,0,1
-0.29807812,1.6172832,9.879673,0,0,1
-0.34835634,1.5969325,10.004171,0,0,1
-0.3854665,1.5442601,10.093954,0,0,1
-0.32800564,1.5131354,10.105926,0,0,1
-0.25378537,1.5131354,10.047267,0,0,1
-0.14724341,1.532289,9.973047,0,0,1
-0.06464344,1.5490485,9.837775,0,0,1
0.029927522,1.5921441,9.69532,0,0,1
0.059855044,1.5945383,9.607931,0,0,1
0.007182605,1.614889,9.465476,0,0,1
-0.079008654,1.6196774,9.340978,0,0,1
-0.17477672,1.6304513,9.330204,0,0,1
-0.24301147,1.6304513,9.358934,0,0,1
-0.3172317,1.614889,9.43076,0,0,1
-0.36750996,1.5945383,9.485827,0,0,1
-0.32680854,1.6184803,9.532514,0,0,1
-0.3184288,1.5945383,9.551667,0,0,1
-0.30047232,1.5717934,9.579201,0,0,1
-0.29209262,1.555034,9.662998,0,0,1
-0.24301147,1.5729905,9.78989,0,0,1
-0.21428105,1.5741876,9.824607,0,0,1
-0.19512744,1.541866,9.844957,0,0,1
-0.19991584,1.5334862,9.768343,0,0,1
-0.18315643,1.543063,9.7240505,0,0,1
-0.15442601,1.5346833,9.691729,0,0,1
-0.1328782,1.5514427,9.685743,0,0,1
-0.12569559,1.5562311,9.627085,0,0,1
-0.14724341,1.5382746,9.582792,0,0,1
-0.15801731,1.541866,9.562442,0,0,1
-0.16400282,1.543063,9.455899,0,0,1
-0.18195933,1.541866,9.473856,0,0,1
-0.20350714,1.5382746,9.519346,0,0,1
-0.21906945,1.5765818,9.554062,0,0,1
-0.260968,1.5586253,9.619903,0,0,1
-0.24181437,1.5502456,9.643845,0,0,1
-0.25857377,1.5227122,9.640253,0,0,1
-0.2717419,1.5275006,9.640253,0,0,1
-0.2633622,1.5370775,9.610326,0,0,1
-0.22385786,1.5490485,9.607931,0,0,1
-0.18435353,1.541866,9.570822,0,0,1
-0.1340753,1.5634137,9.536105,0,0,1
-0.11492168,1.5370775,9.539697,0,0,1
-0.11492168,1.541866,9.53012,0,0,1
-0.14844051,1.5370775,9.527725,0,0,1
-0.20829555,1.5275006,9.569624,0,0,1
-0.24660277,1.5263035,9.618706,0,0,1
-0.2753332,1.5167267,9.613917,0,0,1
-0.30526072,1.4939818,9.633071,0,0,1
-0.272939,1.4796166,9.647436,0,0,1
-0.22625206,1.4796166,9.619903,0,0,1
-0.1592144,1.4975731,9.616311,0,0,1
-0.11252748,1.5179238,9.586384,0,0,1
-0.11971009,1.5179238,9.574412,0,0,1
-0.107739076,1.5215151,9.556456,0,0,1
-0.11731588,1.4939818,9.557653,0,0,1
-0.1352724,1.4903905,9.611523,0,0,1
-0.1340753,1.4939818,9.67018,0,0,1
-0.093373865,1.4939818,9.775525,0,0,1
-0.06703765,1.4879963,9.811439,0,0,1
-0.044292733,1.508347,9.822212,0,0,1
-0.047884032,1.5346833,9.764751,0,0,1
-0.093373865,1.520318,9.691729,0,0,1
-0.10414778,1.5251064,9.665392,0,0,1
-0.09696517,1.5143325,9.621099,0,0,1
-0.107739076,1.5215151,9.574412,0,0,1
-0.1412579,1.5023615,9.526528,0,0,1
-0.14963761,1.4808137,9.533711,0,0,1
-0.16160862,1.5035586,9.592369,0,0,1
-0.15801731,1.508347,9.696517,0,0,1
-0.16160862,1.4891934,9.7719345,0,0,1
-0.17357962,1.4867992,9.816227,0,0,1
-0.18674773,1.4987702,9.864111,0,0,1
-0.16998832,1.5071499,9.859323,0,0,1
-0.11851298,1.4999673,9.837775,0,0,1
-0.090979666,1.5047557,9.797073,0,0,1
-0.074220255,1.5227122,9.725247,0,0,1
-0.08738836,1.5107412,9.664195,0,0,1
-0.07182605,1.5514427,9.609129,0,0,1
-0.11372458,1.5358804,9.568427,0,0,1
-0.11372458,1.5358804,9.568427,0,0,1
-0.1592144,1.5478514,9.5971575,0,0,1
-0.24660277,1.5286977,9.634268,0,0,1
-0.24660277,1.5286977,9.634268,0,0,1
-0.30166942,1.5179238,9.634268,0,0,1
-0.33399114,1.5095441,9.634268,0,0,1
-0.33399114,1.5095441,9.634268,0,0,1
-0.31244332,1.5334862,9.591172,0,0,1
-0.31244332,1.5334862,9.591172,0,0,1
-0.25977087,1.5466543,9.53012,0,0,1
-0.19752164,1.5358804,9.524135,0,0,1
-0.15442601,1.5574282,9.540894,0,0,1
-0.090979666,1.5598224,9.496601,0,0,1
-0.08738836,1.5598224,9.579201,0,0,1
-0.053869538,1.5622166,9.664195,0,0,1
-0.02873042,1.5490485,9.673772,0,0,1
-0.05746084,1.5227122,9.677363,0,0,1
-0.06344634,1.5406688,9.696517,0,0,1
-0.075417355,1.5598224,9.679757,0,0,1
-0.09935937,1.578976,9.647436,0,0,1
-0.11252748,1.5562311,9.647436,0,0,1
-0.1328782,1.5382746,9.5971575,0,0,1
-0.16639702,1.532289,9.576807,0,0,1
-0.19632454,1.532289,9.562442,0,0,1
-0.25258827,1.5454572,9.557653,0,0,1
-0.25977087,1.541866,9.520543,0,0,1
-0.2621651,1.5442601,9.5732155,0,0,1
-0.22744916,1.5502456,9.569624,0,0,1
-0.21428105,1.5239093,9.599552,0,0,1
-0.21787235,1.5526398,9.611523,0,0,1
-0.22146365,1.5478514,9.685743,0,0,1
-0.22146365,1.5478514,9.685743,0,0,1
-0.21787235,1.5454572,9.757569,0,0,1
-0.20590134,1.5155296,9.82341,0,0,1
-0.16280572,1.4700398,9.830592,0,0,1
-0.110133275,1.4748282,9.774328,0,0,1
-0.050278235,1.4903905,9.7324295,0,0,1
0.021547815,1.484405,9.622296,0,0,1
0.05865794,1.520318,9.561244,0,0,1
0.09935937,1.520318,9.545682,0,0,1
0.073023155,1.5239093,9.56723,0,0,1
0.019153614,1.4939818,9.568427,0,0,1
-0.029927522,1.472434,9.588778,0,0,1
-0.08259996,1.4676456,9.598354,0,0,1
-0.1352724,1.4796166,9.65821,0,0,1
-0.17357962,1.4927847,9.6845455,0,0,1
-0.21906945,1.472434,9.701305,0,0,1
-0.21547815,1.4532804,9.703699,0,0,1
-0.18794483,1.459266,9.683349,0,0,1
-0.1340753,1.4676456,9.739613,0,0,1
-0.08140286,1.4628572,9.799467,0,0,1
-0.04070143,1.4496891,9.817424,0,0,1
-0.02873042,1.4508862,9.794679,0,0,1
-0.045489833,1.4544775,9.765948,0,0,1
-0.05267244,1.4401124,9.76954,0,0,1
-0.02873042,1.435324,9.765948,0,0,1
-0.04309563,1.4425066,9.781511,0,0,1
-0.07182605,1.436521,9.725247,0,0,1
-0.049081136,1.4556746,9.712079,0,0,1
-0.06344634,1.5179238,9.655815,0,0,1
-0.051475335,1.532289,9.579201,0,0,1
-0.09696517,1.532289,9.583989,0,0,1
-0.12808979,1.5286977,9.524135,0,0,1
-0.17717093,1.5478514,9.427169,0,0,1
-0.21906945,1.553837,9.370906,0,0,1
-0.23104046,1.5825673,9.354146,0,0,1
-0.20829555,1.602918,9.356541,0,0,1
-0.20470424,1.5981296,9.344569,0,0,1
-0.20350714,1.5741876,9.374496,0,0,1
-0.20829555,1.5813702,9.434352,0,0,1
-0.20829555,1.5813702,9.434352,0,0,1
-0.17836803,1.5765818,9.467871,0,0,1
-0.16400282,1.5646108,9.545682,0,0,1
-0.16400282,1.5646108,9.545682,0,0,1
-0.14963761,1.5346833,9.662998,0,0,1
-0.1352724,1.5227122,9.725247,0,0,1
-0.130484,1.5215151,9.831789,0,0,1
-0.16400282,1.5059528,9.855731,0,0,1
-0.20470424,1.4879963,9.841366,0,0,1
-0.22625206,1.4748282,9.818622,0,0,1
-0.24301147,1.4903905,9.7958765,0,0,1
-0.19871874,1.483208,9.788693,0,0,1
-0.1388637,1.4820108,9.759963,0,0,1
-0.06584055,1.4784195,9.792285,0,0,1
0.002394202,1.4676456,9.781511,0,0,1
0.044292733,1.4879963,9.785102,0,0,1
0.044292733,1.4879963,9.785102,0,0,1
0.05865794,1.5131354,9.768343,0,0,1
0.04189853,1.5310919,9.757569,0,0,1
-0.003591303,1.5023615,9.764751,0,0,1
-0.061052144,1.5071499,9.744401,0,0,1
-0.073023155,1.5131354,9.743204,0,0,1
-0.092176765,1.5275006,9.702502,0,0,1
-0.1340753,1.5310919,9.648633,0,0,1
-0.18195933,1.5346833,9.580399,0,0,1
-0.18195933,1.5346833,9.580399,0,0,1
-0.23582886,1.5239093,9.554062,0,0,1
-0.25737667,1.508347,9.5385,0,0,1
-0.23223756,1.5298948,9.5385,0,0,1
-0.21188685,1.5239093,9.54209,0,0,1
-0.15203181,1.5275006,9.610326,0,0,1
-0.09696517,1.5107412,9.633071,0,0,1
-0.06823475,1.5370775,9.709685,0,0,1
-0.05746084,1.5023615,9.739613,0,0,1
-0.06703765,1.484405,9.76954,0,0,1
-0.08499416,1.5035586,9.8916445,0,0,1
-0.08140286,1.5191209,9.939528,0,0,1
-0.107739076,1.5155296,9.97185,0,0,1
-0.107739076,1.5155296,9.97185,0,0,1
-0.12330139,1.496376,9.940725,0,0,1
-0.12090719,1.5023615,9.862914,0,0,1
-0.06344634,1.4939818,9.702502,0,0,1
-0.025139118,1.4999673,9.623494,0,0,1
0.001197101,1.5370775,9.5253315,0,0,1
0.016759412,1.541866,9.451111,0,0,1
-0.011971008,1.5490485,9.41041,0,0,1
-0.05865794,1.5035586,9.386468,0,0,1
-0.090979666,1.4927847,9.40203,0,0,1
-0.107739076,1.4927847,9.466674,0,0,1
-0.11252748,1.4915876,9.506178,0,0,1
-0.088585466,1.5131354,9.532514,0,0,1
-0.092176765,1.5155296,9.568427,0,0,1
-0.08619126,1.5227122,9.57561,0,0,1
-0.076614454,1.5095441,9.587581,0,0,1
-0.07062895,1.5035586,9.570822,0,0,1
-0.06943185,1.5215151,9.556456,0,0,1
-0.088585466,1.5478514,9.532514,0,0,1
-0.10654198,1.5442601,9.449914,0,0,1
-0.10534488,1.5526398,9.414001,0,0,1
-0.074220255,1.5358804,9.404425,0,0,1
-0.035913024,1.5251064,9.434352,0,0,1
0.06703765,1.5370775,9.443929,0,0,1
0.019153614,1.5490485,9.440337,0,0,1
0.019153614,1.5490485,9.440337,0,0,1
-0.045489833,1.5897499,9.5385,0,0,1
-0.10055647,1.5693992,9.627085,0,0,1
-0.10414778,1.5382746,9.682152,0,0,1
-0.08140286,1.541866,9.67856,0,0,1
-0.033518825,1.5514427,9.659407,0,0,1
0.002394202,1.5993267,9.662998,0,0,1
0.045489833,1.6484078,9.633071,0,0,1
0.06943185,1.6639702,9.595961,0,0,1
0.044292733,1.6879122,9.5492735,0,0,1
0.033518825,1.7058687,9.52174,0,0,1
0.017956512,1.7645266,9.464279,0,0,1
0.017956512,1.8112136,9.396045,0,0,1
0.020350715,1.8543092,9.285912,0,0,1
0.051475335,1.8986019,9.118318,0,0,1
0.089782566,1.9572599,9.052477,0,0,1
0.079008654,2.0494366,9.100361,0,0,1
0.038307227,2.1392193,9.14585,0,0,1
-0.023942016,2.2218192,9.2069025,0,0,1
-0.089782566,2.2852654,9.221268,0,0,1
-0.06584055,2.3810337,9.375694,0,0,1
0.033518825,2.4887726,9.605537,0,0,1
0.10175357,2.6360161,9.958682,0,0,1
0.092176765,2.7114334,10.298658,0,0,1
0.075417355,2.7700913,10.492589,0,0,1
0.11133038,2.8898015,10.579977,0,0,1
0.15442601,3.0478187,10.602722,0,0,1
0.17717093,3.2441432,10.672154,0,0,1
0.1604115,3.4332852,10.78947,0,0,1
0.17238252,3.6056678,10.9582615,0,0,1
0.2801216,3.7301662,11.003751,0,0,1
0.48961425,3.8283286,10.981006,0,0,1
0.37349546,4.0318356,10.812215,0,0,1
0.015562311,4.308366,10.783484,0,0,1
-0.33758244,4.537012,10.97502,0,0,1
-0.5710171,4.6686935,11.11987,0,0,1
-0.7158663,4.783615,11.052833,0,0,1
-0.7158663,4.783615,11.052833,0,0,1
-0.81642276,5.080496,10.475829,0,0,1
-0.81642276,5.080496,10.475829,0,0,1
-0.79846627,5.2397103,10.0987425,0,0,1
-0.80924016,5.425261,9.716867,0,0,1
-0.8643068,5.5701103,9.343372,0,0,1
-0.93134445,5.6766524,9.015367,0,0,1
-0.9816227,5.767632,8.768764,0,0,1
-1.0019734,5.85502,8.595184,0,0,1
-0.9540894,5.9567738,8.461109,0,0,1
-0.8295909,6.0477533,8.3821,0,0,1
-0.7326257,6.126762,8.27077,0,0,1
-0.7026982,6.1806316,8.161834,0,0,1
-0.7026982,6.1806316,8.161834,0,0,1
-0.6715736,6.1866174,8.0924015,0,0,1
-0.6631939,6.184223,8.043321,0,0,1
-0.6356605,6.18542,7.9990277,0,0,1
-0.5626374,6.184223,8.090008,0,0,1
-0.4297592,6.172252,8.3390045,0,0,1
-0.260968,6.089652,8.875306,0,0,1
-0.095768064,5.922058,9.579201,0,0,1
-0.002394202,5.711368,10.28549,0,0,1
0.11611878,5.4779334,10.721235,0,0,1
0.2777274,5.3558292,11.031284,0,0,1
0.40701428,5.1810527,11.164163,0,0,1
0.45130703,5.0254292,11.050438,0,0,1
0.39264908,4.739322,10.8624935,0,0,1
-0.17836803,4.2904096,10.630256,0,0,1
-0.748188,3.928885,10.25676,0,0,1
-1.2174516,3.4991257,9.788693,0,0,1
-1.9297266,2.9855695,9.424775,0,0,1
-2.8514943,2.540248,9.266758,0,0,1
-3.6750996,2.1045034,9.279925,0,0,1
-3.9815574,1.6915035,9.41041,0,0,1
-3.8881836,1.2018893,9.482236,0,0,1
-3.4452562,0.5482722,9.623494,0,0,1
-2.777274,-0.2693477,9.455899,0,0,1
-2.777274,-0.2693477,9.455899,0,0,1
-2.0219033,-1.1372458,9.050082,0,0,1
-1.3359646,-1.9883845,8.414422,0,0,1
-0.7733272,-2.7485435,7.7584105,0,0,1
-0.36990416,-3.4632127,7.1766195,0,0,1
-0.12569559,-4.212598,6.7947445,0,0,1
-0.090979666,-5.019444,6.5241995,0,0,1
-0.08140286,-5.792771,6.2943563,0,0,1
-0.11133038,-6.6283474,6.295553,0,0,1
-0.21547815,-7.4567413,6.3721676,0,0,1
-0.21547815,-7.4567413,6.3721676,0,0,1
-0.5279215,-8.176199,6.518214,0,0,1
-0.985214,-8.848969,7.0090256,0,0,1
-1.3934253,-9.386468,7.8290396,0,0,1
-1.6101006,-9.848549,8.822633,0,0,1
-1.602918,-10.266336,9.89763,0,0,1
-1.4748282,-10.717644,11.0695915,0,0,1
-1.1923125,-11.123461,12.343307,0,0,1
-0.7529764,-11.416751,13.51886,0,0,1
-0.1436521,-11.625047,14.474147,0,0,1
-0.1436521,-11.625047,14.474147,0,0,1
0.59256494,-11.748347,15.152903,0,0,1
1.3982137,-11.766304,15.516821,0,0,1
2.231396,-11.620258,15.649699,0,0,1
3.0789435,-11.285069,15.50485,0,0,1
3.7612908,-10.79785,15.051149,0,0,1
4.132392,-10.253169,14.176068,0,0,1
4.1299977,-9.714474,13.001713,0,0,1
3.7696705,-9.187749,11.695675,0,0,1
3.086126,-8.639477,10.375273,0,0,1
2.1894975,-8.086416,9.179369,0,0,1
1.271321,-7.501034,8.178593,0,0,1
0.36750996,-6.9024835,7.5764513,0,0,1
-0.4285621,-6.265626,7.2448545,0,0,1
-1.1288661,-5.6539073,7.141904,0,0,1
-1.1288661,-5.6539073,7.141904,0,0,1
-1.5059528,-5.12838,7.117962,0,0,1
-1.5825673,-4.6591167,7.291541,0,0,1
-1.4796166,-4.1946416,7.6123643,0,0,1
